  1.3257480e+003  1.3312400e+003  1.3341180e+003  1.3341160e+003  1.3325000e+003  1.3321410e+003  1.3337230e+003  1.3369480e+003  1.3411670e+003  1.3477270e+003  1.3550910e+003  1.3619510e+003  1.3694120e+003  1.3767200e+003  1.3839380e+003  1.3927390e+003  1.4014630e+003  1.4105120e+003  1.4192400e+003  1.4281860e+003  1.4381440e+003  1.4475080e+003  1.4560570e+003  1.4637260e+003  1.4724620e+003  1.4814190e+003  1.4911880e+003  1.5009770e+003  1.5109600e+003  1.5206610e+003  1.5304400e+003  1.5401660e+003  1.5497660e+003  1.5589900e+003  1.5675880e+003  1.5761780e+003  1.5839620e+003  1.5925250e+003  1.6003750e+003  1.6075730e+003  1.6141770e+003  1.6203790e+003  1.6264600e+003  1.6319800e+003  1.6367730e+003  1.6410670e+003  1.6454590e+003  1.6495700e+003  1.6527560e+003  1.6543320e+003  1.6547020e+003  1.6545950e+003  1.6546370e+003  1.6552020e+003  1.6565060e+003  1.6585730e+003  1.6599420e+003  1.6613450e+003  1.6634210e+003  1.6646110e+003  1.6649950e+003  1.6649560e+003  1.6647880e+003  1.6646390e+003
  1.3329550e+003  1.3400690e+003  1.3440500e+003  1.3439310e+003  1.3407620e+003  1.3376060e+003  1.3362750e+003  1.3371560e+003  1.3403980e+003  1.3468650e+003  1.3545630e+003  1.3618860e+003  1.3696880e+003  1.3771200e+003  1.3845650e+003  1.3938010e+003  1.4030060e+003  1.4125160e+003  1.4212080e+003  1.4300260e+003  1.4392300e+003  1.4480370e+003  1.4561510e+003  1.4634630e+003  1.4721900e+003  1.4816500e+003  1.4921220e+003  1.5021710e+003  1.5122060e+003  1.5214450e+003  1.5308160e+003  1.5401970e+003  1.5494930e+003  1.5584250e+003  1.5667950e+003  1.5760840e+003  1.5846520e+003  1.5937190e+003  1.6014780e+003  1.6086570e+003  1.6151840e+003  1.6214100e+003  1.6283490e+003  1.6348550e+003  1.6405190e+003  1.6457090e+003  1.6505970e+003  1.6550020e+003  1.6584510e+003  1.6598830e+003  1.6601510e+003  1.6600080e+003  1.6598910e+003  1.6600830e+003  1.6609320e+003  1.6628740e+003  1.6646610e+003  1.6664800e+003  1.6684330e+003  1.6696230e+003  1.6700300e+003  1.6699760e+003  1.6697500e+003  1.6695270e+003
  1.3413710e+003  1.3491950e+003  1.3538650e+003  1.3535290e+003  1.3489010e+003  1.3433540e+003  1.3397360e+003  1.3387600e+003  1.3410120e+003  1.3476200e+003  1.3559800e+003  1.3637450e+003  1.3717670e+003  1.3793520e+003  1.3872840e+003  1.3966240e+003  1.4059550e+003  1.4154680e+003  1.4235290e+003  1.4316950e+003  1.4402750e+003  1.4489890e+003  1.4573520e+003  1.4646210e+003  1.4729260e+003  1.4824990e+003  1.4935820e+003  1.5036220e+003  1.5135640e+003  1.5221880e+003  1.5310830e+003  1.5402140e+003  1.5494940e+003  1.5588490e+003  1.5680060e+003  1.5777830e+003  1.5870310e+003  1.5961820e+003  1.6034990e+003  1.6103360e+003  1.6168960e+003  1.6233970e+003  1.6311050e+003  1.6384870e+003  1.6449380e+003  1.6506640e+003  1.6557460e+003  1.6601580e+003  1.6634860e+003  1.6651330e+003  1.6655430e+003  1.6653810e+003  1.6651470e+003  1.6651950e+003  1.6658750e+003  1.6674250e+003  1.6693670e+003  1.6715790e+003  1.6736970e+003  1.6748090e+003  1.6751340e+003  1.6750770e+003  1.6748980e+003  1.6747200e+003
  1.3503680e+003  1.3578690e+003  1.3618850e+003  1.3613160e+003  1.3568120e+003  1.3506020e+003  1.3451850e+003  1.3427340e+003  1.3440980e+003  1.3501490e+003  1.3580680e+003  1.3660320e+003  1.3742700e+003  1.3814720e+003  1.3894270e+003  1.3985730e+003  1.4078150e+003  1.4170010e+003  1.4246230e+003  1.4324030e+003  1.4406730e+003  1.4493170e+003  1.4577770e+003  1.4650870e+003  1.4732040e+003  1.4826420e+003  1.4936220e+003  1.5034300e+003  1.5129470e+003  1.5216780e+003  1.5306370e+003  1.5397240e+003  1.5489830e+003  1.5587610e+003  1.5685880e+003  1.5788400e+003  1.5884890e+003  1.5975700e+003  1.6048400e+003  1.6118860e+003  1.6191020e+003  1.6265130e+003  1.6345740e+003  1.6422460e+003  1.6494550e+003  1.6555460e+003  1.6606790e+003  1.6651250e+003  1.6684270e+003  1.6702400e+003  1.6707570e+003  1.6705980e+003  1.6703020e+003  1.6702380e+003  1.6706910e+003  1.6718680e+003  1.6737330e+003  1.6762200e+003  1.6787140e+003  1.6797560e+003  1.6800770e+003  1.6801830e+003  1.6802560e+003  1.6803200e+003
  1.3593100e+003  1.3660770e+003  1.3696930e+003  1.3690200e+003  1.3646410e+003  1.3592830e+003  1.3540130e+003  1.3500540e+003  1.3511470e+003  1.3551400e+003  1.3612660e+003  1.3683300e+003  1.3754490e+003  1.3822580e+003  1.3904510e+003  1.3993120e+003  1.4081470e+003  1.4167580e+003  1.4240480e+003  1.4318390e+003  1.4401270e+003  1.4485390e+003  1.4568810e+003  1.4642730e+003  1.4725210e+003  1.4818330e+003  1.4922390e+003  1.5020880e+003  1.5117510e+003  1.5207740e+003  1.5296350e+003  1.5384430e+003  1.5473660e+003  1.5573860e+003  1.5676710e+003  1.5784570e+003  1.5882960e+003  1.5972870e+003  1.6047470e+003  1.6124320e+003  1.6204930e+003  1.6290710e+003  1.6379780e+003  1.6462710e+003  1.6538990e+003  1.6600570e+003  1.6652450e+003  1.6696890e+003  1.6731050e+003  1.6751250e+003  1.6756990e+003  1.6755700e+003  1.6752860e+003  1.6751390e+003  1.6753160e+003  1.6760160e+003  1.6774810e+003  1.6798810e+003  1.6822290e+003  1.6837290e+003  1.6846460e+003  1.6853510e+003  1.6859890e+003  1.6865470e+003
  1.3679520e+003  1.3739820e+003  1.3774870e+003  1.3770850e+003  1.3733430e+003  1.3687830e+003  1.3641280e+003  1.3603630e+003  1.3598980e+003  1.3620130e+003  1.3665470e+003  1.3722380e+003  1.3780890e+003  1.3842540e+003  1.3919560e+003  1.3998810e+003  1.4077330e+003  1.4152170e+003  1.4222020e+003  1.4302690e+003  1.4387000e+003  1.4466390e+003  1.4545910e+003  1.4623820e+003  1.4712470e+003  1.4808070e+003  1.4909600e+003  1.5008960e+003  1.5106510e+003  1.5198300e+003  1.5282780e+003  1.5363630e+003  1.5446440e+003  1.5546810e+003  1.5652900e+003  1.5766910e+003  1.5865750e+003  1.5953850e+003  1.6032640e+003  1.6119430e+003  1.6209210e+003  1.6303590e+003  1.6398860e+003  1.6489430e+003  1.6572080e+003  1.6632640e+003  1.6685130e+003  1.6731940e+003  1.6770230e+003  1.6794730e+003  1.6801750e+003  1.6802350e+003  1.6801310e+003  1.6800180e+003  1.6799720e+003  1.6801590e+003  1.6810030e+003  1.6832240e+003  1.6855180e+003  1.6873960e+003  1.6889230e+003  1.6903120e+003  1.6916200e+003  1.6928400e+003
  1.3760380e+003  1.3809120e+003  1.3837300e+003  1.3836360e+003  1.3811610e+003  1.3780460e+003  1.3744990e+003  1.3710060e+003  1.3696770e+003  1.3705660e+003  1.3736160e+003  1.3782150e+003  1.3831370e+003  1.3891000e+003  1.3953810e+003  1.4016810e+003  1.4082070e+003  1.4144720e+003  1.4208770e+003  1.4286260e+003  1.4368210e+003  1.4443150e+003  1.4523380e+003  1.4607840e+003  1.4700760e+003  1.4798820e+003  1.4898670e+003  1.4998160e+003  1.5095660e+003  1.5189000e+003  1.5269830e+003  1.5345570e+003  1.5424680e+003  1.5521470e+003  1.5627850e+003  1.5741900e+003  1.5841090e+003  1.5931700e+003  1.6017460e+003  1.6109710e+003  1.6204920e+003  1.6302240e+003  1.6399400e+003  1.6492250e+003  1.6577640e+003  1.6640230e+003  1.6696980e+003  1.6749700e+003  1.6795140e+003  1.6824740e+003  1.6840100e+003  1.6847180e+003  1.6850080e+003  1.6850610e+003  1.6849770e+003  1.6850090e+003  1.6856040e+003  1.6871640e+003  1.6891340e+003  1.6911370e+003  1.6930430e+003  1.6949640e+003  1.6967470e+003  1.6986710e+003
  1.3829980e+003  1.3871980e+003  1.3894770e+003  1.3896370e+003  1.3881830e+003  1.3860280e+003  1.3834400e+003  1.3808380e+003  1.3794670e+003  1.3796020e+003  1.3815500e+003  1.3854510e+003  1.3903070e+003  1.3957990e+003  1.4006900e+003  1.4056640e+003  1.4104990e+003  1.4152640e+003  1.4206330e+003  1.4275720e+003  1.4348690e+003  1.4420660e+003  1.4504870e+003  1.4595260e+003  1.4689840e+003  1.4788640e+003  1.4885340e+003  1.4983150e+003  1.5079960e+003  1.5176880e+003  1.5256450e+003  1.5329820e+003  1.5406780e+003  1.5497440e+003  1.5600330e+003  1.5708470e+003  1.5810640e+003  1.5906350e+003  1.5998690e+003  1.6092470e+003  1.6189260e+003  1.6284220e+003  1.6378560e+003  1.6467940e+003  1.6554070e+003  1.6622320e+003  1.6686330e+003  1.6747860e+003  1.6802040e+003  1.6843500e+003  1.6870690e+003  1.6887090e+003  1.6896490e+003  1.6900960e+003  1.6901110e+003  1.6900420e+003  1.6903730e+003  1.6914150e+003  1.6930750e+003  1.6951110e+003  1.6971370e+003  1.6993670e+003  1.7010480e+003  1.7030820e+003
  1.3893050e+003  1.3930680e+003  1.3949930e+003  1.3953380e+003  1.3946660e+003  1.3934970e+003  1.3919920e+003  1.3903200e+003  1.3890570e+003  1.3886900e+003  1.3900120e+003  1.3932720e+003  1.3977650e+003  1.4023680e+003  1.4068210e+003  1.4110150e+003  1.4144620e+003  1.4178430e+003  1.4222180e+003  1.4283910e+003  1.4347290e+003  1.4413610e+003  1.4496140e+003  1.4586040e+003  1.4677320e+003  1.4774190e+003  1.4865580e+003  1.4959310e+003  1.5055520e+003  1.5158830e+003  1.5239580e+003  1.5312220e+003  1.5386960e+003  1.5470240e+003  1.5569450e+003  1.5673150e+003  1.5778370e+003  1.5875550e+003  1.5970000e+003  1.6061610e+003  1.6157060e+003  1.6247580e+003  1.6335010e+003  1.6417960e+003  1.6500840e+003  1.6580080e+003  1.6656880e+003  1.6732770e+003  1.6800960e+003  1.6855850e+003  1.6895350e+003  1.6921720e+003  1.6938910e+003  1.6949260e+003  1.6950960e+003  1.6949290e+003  1.6950800e+003  1.6958180e+003  1.6973390e+003  1.6995640e+003  1.7014870e+003  1.7038650e+003  1.7057520e+003  1.7074650e+003
  1.3951870e+003  1.3988470e+003  1.4005770e+003  1.4010970e+003  1.4010900e+003  1.4009050e+003  1.4005180e+003  1.3996990e+003  1.3985900e+003  1.3976710e+003  1.3983920e+003  1.4010470e+003  1.4048340e+003  1.4088530e+003  1.4131380e+003  1.4170950e+003  1.4196630e+003  1.4222830e+003  1.4266040e+003  1.4318490e+003  1.4369500e+003  1.4425900e+003  1.4500000e+003  1.4580610e+003  1.4662020e+003  1.4754290e+003  1.4841090e+003  1.4933680e+003  1.5031720e+003  1.5136530e+003  1.5218850e+003  1.5291340e+003  1.5362160e+003  1.5438450e+003  1.5533940e+003  1.5634610e+003  1.5740740e+003  1.5836570e+003  1.5927520e+003  1.6015690e+003  1.6107340e+003  1.6199440e+003  1.6283850e+003  1.6362190e+003  1.6439560e+003  1.6525190e+003  1.6618380e+003  1.6712410e+003  1.6796930e+003  1.6865290e+003  1.6916170e+003  1.6951240e+003  1.6975460e+003  1.6992880e+003  1.6995860e+003  1.6993430e+003  1.6996780e+003  1.7004880e+003  1.7021490e+003  1.7049210e+003  1.7071910e+003  1.7091690e+003  1.7106840e+003  1.7118950e+003
  1.4006580e+003  1.4044440e+003  1.4066990e+003  1.4077030e+003  1.4081960e+003  1.4087120e+003  1.4092300e+003  1.4090210e+003  1.4080550e+003  1.4067510e+003  1.4070490e+003  1.4093380e+003  1.4121490e+003  1.4152420e+003  1.4188810e+003  1.4221550e+003  1.4250090e+003  1.4282320e+003  1.4325070e+003  1.4371930e+003  1.4412260e+003  1.4461940e+003  1.4520600e+003  1.4583590e+003  1.4649750e+003  1.4733300e+003  1.4817080e+003  1.4910230e+003  1.5008570e+003  1.5109180e+003  1.5197500e+003  1.5273770e+003  1.5345310e+003  1.5419810e+003  1.5510500e+003  1.5604810e+003  1.5701630e+003  1.5797550e+003  1.5885650e+003  1.5970900e+003  1.6057920e+003  1.6154350e+003  1.6237970e+003  1.6314910e+003  1.6391570e+003  1.6477960e+003  1.6587790e+003  1.6696300e+003  1.6794380e+003  1.6874810e+003  1.6935650e+003  1.6976910e+003  1.7004550e+003  1.7024480e+003  1.7029540e+003  1.7026300e+003  1.7041650e+003  1.7060470e+003  1.7085100e+003  1.7114130e+003  1.7134540e+003  1.7147480e+003  1.7155660e+003  1.7161710e+003
  1.4061270e+003  1.4101720e+003  1.4128820e+003  1.4141380e+003  1.4148570e+003  1.4158810e+003  1.4174150e+003  1.4180000e+003  1.4178350e+003  1.4172610e+003  1.4173280e+003  1.4183040e+003  1.4195520e+003  1.4211260e+003  1.4237230e+003  1.4266330e+003  1.4298900e+003  1.4337900e+003  1.4381720e+003  1.4423210e+003  1.4464590e+003  1.4511380e+003  1.4559380e+003  1.4611120e+003  1.4669750e+003  1.4737040e+003  1.4810380e+003  1.4898210e+003  1.4993230e+003  1.5090000e+003  1.5183720e+003  1.5265450e+003  1.5341630e+003  1.5417850e+003  1.5505680e+003  1.5591940e+003  1.5676770e+003  1.5771730e+003  1.5854950e+003  1.5938490e+003  1.6024250e+003  1.6118120e+003  1.6204070e+003  1.6282570e+003  1.6361430e+003  1.6452470e+003  1.6571230e+003  1.6688120e+003  1.6795450e+003  1.6886270e+003  1.6956800e+003  1.7003880e+003  1.7038070e+003  1.7062250e+003  1.7075140e+003  1.7082510e+003  1.7097830e+003  1.7119070e+003  1.7147540e+003  1.7177690e+003  1.7192790e+003  1.7197940e+003  1.7198930e+003  1.7199760e+003
  1.4113250e+003  1.4155280e+003  1.4185160e+003  1.4197340e+003  1.4204210e+003  1.4215600e+003  1.4235760e+003  1.4249610e+003  1.4258450e+003  1.4260080e+003  1.4260340e+003  1.4262110e+003  1.4264170e+003  1.4268720e+003  1.4282510e+003  1.4305670e+003  1.4338870e+003  1.4381780e+003  1.4424510e+003  1.4468960e+003  1.4516150e+003  1.4567120e+003  1.4611600e+003  1.4660860e+003  1.4712410e+003  1.4764490e+003  1.4824150e+003  1.4901700e+003  1.4988020e+003  1.5079170e+003  1.5177520e+003  1.5267080e+003  1.5351650e+003  1.5432740e+003  1.5521480e+003  1.5602240e+003  1.5682190e+003  1.5765450e+003  1.5839950e+003  1.5922600e+003  1.6008440e+003  1.6100370e+003  1.6188240e+003  1.6266830e+003  1.6347410e+003  1.6442330e+003  1.6565050e+003  1.6685890e+003  1.6798650e+003  1.6897640e+003  1.6978180e+003  1.7030820e+003  1.7071150e+003  1.7102440e+003  1.7124230e+003  1.7139610e+003  1.7152770e+003  1.7169950e+003  1.7195690e+003  1.7218600e+003  1.7230880e+003  1.7233710e+003  1.7231430e+003  1.7230890e+003
  1.4156330e+003  1.4195900e+003  1.4221630e+003  1.4238350e+003  1.4251990e+003  1.4269050e+003  1.4291630e+003  1.4312470e+003  1.4328600e+003  1.4334790e+003  1.4335250e+003  1.4332880e+003  1.4327600e+003  1.4321420e+003  1.4324210e+003  1.4339990e+003  1.4369540e+003  1.4410160e+003  1.4458780e+003  1.4509620e+003  1.4562130e+003  1.4616020e+003  1.4669260e+003  1.4721350e+003  1.4770280e+003  1.4811370e+003  1.4861980e+003  1.4924190e+003  1.4996360e+003  1.5078980e+003  1.5180210e+003  1.5277170e+003  1.5371270e+003  1.5458940e+003  1.5548520e+003  1.5621470e+003  1.5697300e+003  1.5776780e+003  1.5846610e+003  1.5922610e+003  1.6005490e+003  1.6095600e+003  1.6184020e+003  1.6262220e+003  1.6343450e+003  1.6440000e+003  1.6563680e+003  1.6685230e+003  1.6799610e+003  1.6901520e+003  1.6986450e+003  1.7046410e+003  1.7096330e+003  1.7137680e+003  1.7168110e+003  1.7189880e+003  1.7199470e+003  1.7209420e+003  1.7230670e+003  1.7249110e+003  1.7259630e+003  1.7262540e+003  1.7260830e+003  1.7258520e+003
  1.4186750e+003  1.4221530e+003  1.4245380e+003  1.4267810e+003  1.4288560e+003  1.4311380e+003  1.4337720e+003  1.4364260e+003  1.4387600e+003  1.4397160e+003  1.4399110e+003  1.4396180e+003  1.4387210e+003  1.4371570e+003  1.4366160e+003  1.4376430e+003  1.4404360e+003  1.4446570e+003  1.4497730e+003  1.4553220e+003  1.4611020e+003  1.4671250e+003  1.4729080e+003  1.4781970e+003  1.4826570e+003  1.4868110e+003  1.4914130e+003  1.4965000e+003  1.5027520e+003  1.5107980e+003  1.5198830e+003  1.5292970e+003  1.5386110e+003  1.5473800e+003  1.5559030e+003  1.5628110e+003  1.5703750e+003  1.5783070e+003  1.5851990e+003  1.5925230e+003  1.6006550e+003  1.6096020e+003  1.6184520e+003  1.6262430e+003  1.6343470e+003  1.6439790e+003  1.6562420e+003  1.6682320e+003  1.6795590e+003  1.6895910e+003  1.6981470e+003  1.7047640e+003  1.7110240e+003  1.7163750e+003  1.7199700e+003  1.7223270e+003  1.7236300e+003  1.7247140e+003  1.7262190e+003  1.7275680e+003  1.7284030e+003  1.7286880e+003  1.7285760e+003  1.7282750e+003
  1.4198820e+003  1.4235940e+003  1.4264170e+003  1.4290140e+003  1.4315380e+003  1.4342150e+003  1.4371510e+003  1.4400730e+003  1.4427070e+003  1.4443510e+003  1.4451170e+003  1.4451000e+003  1.4442060e+003  1.4424640e+003  1.4417250e+003  1.4424960e+003  1.4453480e+003  1.4494480e+003  1.4545830e+003  1.4604200e+003  1.4666580e+003  1.4728810e+003  1.4785850e+003  1.4834440e+003  1.4879620e+003  1.4926150e+003  1.4974670e+003  1.5020110e+003  1.5079760e+003  1.5152390e+003  1.5232000e+003  1.5317030e+003  1.5399810e+003  1.5479290e+003  1.5552770e+003  1.5619200e+003  1.5697850e+003  1.5779320e+003  1.5849020e+003  1.5923390e+003  1.6006200e+003  1.6096580e+003  1.6185420e+003  1.6262920e+003  1.6343000e+003  1.6437660e+003  1.6557430e+003  1.6674060e+003  1.6785250e+003  1.6881240e+003  1.6964230e+003  1.7035920e+003  1.7114240e+003  1.7181960e+003  1.7221080e+003  1.7247300e+003  1.7264120e+003  1.7276710e+003  1.7288850e+003  1.7299060e+003  1.7305650e+003  1.7308260e+003  1.7307500e+003  1.7304450e+003
  1.4203780e+003  1.4243710e+003  1.4276720e+003  1.4306470e+003  1.4334740e+003  1.4363630e+003  1.4395430e+003  1.4427790e+003  1.4458670e+003  1.4482780e+003  1.4498850e+003  1.4506970e+003  1.4508040e+003  1.4500800e+003  1.4496550e+003  1.4502150e+003  1.4522210e+003  1.4555770e+003  1.4604010e+003  1.4662780e+003  1.4725530e+003  1.4785290e+003  1.4835500e+003  1.4880220e+003  1.4925990e+003  1.4978300e+003  1.5032460e+003  1.5083750e+003  1.5144120e+003  1.5213630e+003  1.5287290e+003  1.5357940e+003  1.5425210e+003  1.5493030e+003  1.5553760e+003  1.5613300e+003  1.5688910e+003  1.5768520e+003  1.5838060e+003  1.5916400e+003  1.6003170e+003  1.6095450e+003  1.6184780e+003  1.6261180e+003  1.6339340e+003  1.6430830e+003  1.6545250e+003  1.6657910e+003  1.6768470e+003  1.6862260e+003  1.6946740e+003  1.7026190e+003  1.7113060e+003  1.7187870e+003  1.7232080e+003  1.7263820e+003  1.7284770e+003  1.7299330e+003  1.7310730e+003  1.7319490e+003  1.7325310e+003  1.7328050e+003  1.7327690e+003  1.7325010e+003
  1.4206970e+003  1.4248840e+003  1.4286460e+003  1.4320390e+003  1.4350950e+003  1.4379740e+003  1.4410230e+003  1.4449850e+003  1.4487790e+003  1.4520190e+003  1.4545510e+003  1.4563330e+003  1.4578670e+003  1.4583360e+003  1.4585470e+003  1.4591050e+003  1.4603590e+003  1.4627770e+003  1.4671300e+003  1.4726850e+003  1.4786430e+003  1.4839520e+003  1.4883320e+003  1.4922490e+003  1.4965000e+003  1.5017980e+003  1.5087020e+003  1.5147090e+003  1.5214050e+003  1.5287250e+003  1.5357910e+003  1.5417150e+003  1.5473810e+003  1.5526980e+003  1.5572450e+003  1.5620820e+003  1.5687150e+003  1.5757240e+003  1.5825680e+003  1.5909640e+003  1.6000080e+003  1.6093460e+003  1.6182340e+003  1.6256370e+003  1.6331890e+003  1.6419000e+003  1.6524480e+003  1.6633500e+003  1.6744900e+003  1.6840150e+003  1.6930000e+003  1.7018120e+003  1.7110640e+003  1.7190650e+003  1.7242310e+003  1.7277580e+003  1.7301280e+003  1.7317520e+003  1.7329240e+003  1.7337930e+003  1.7344120e+003  1.7347940e+003  1.7348300e+003  1.7346290e+003
  1.4202720e+003  1.4251780e+003  1.4296540e+003  1.4336560e+003  1.4371100e+003  1.4402430e+003  1.4437450e+003  1.4478600e+003  1.4520540e+003  1.4559480e+003  1.4592730e+003  1.4615670e+003  1.4639740e+003  1.4656570e+003  1.4669320e+003  1.4681720e+003  1.4693770e+003  1.4712010e+003  1.4745670e+003  1.4794850e+003  1.4849380e+003  1.4899010e+003  1.4937320e+003  1.4970700e+003  1.5009180e+003  1.5060370e+003  1.5133770e+003  1.5207010e+003  1.5285950e+003  1.5363290e+003  1.5429860e+003  1.5487550e+003  1.5536290e+003  1.5579440e+003  1.5611990e+003  1.5653290e+003  1.5707240e+003  1.5767820e+003  1.5833090e+003  1.5915780e+003  1.6003180e+003  1.6093500e+003  1.6178970e+003  1.6248960e+003  1.6322630e+003  1.6407460e+003  1.6506540e+003  1.6611360e+003  1.6718330e+003  1.6817330e+003  1.6914690e+003  1.7010750e+003  1.7107630e+003  1.7191640e+003  1.7249130e+003  1.7288290e+003  1.7314820e+003  1.7333080e+003  1.7346090e+003  1.7355850e+003  1.7363530e+003  1.7370160e+003  1.7371810e+003  1.7370790e+003
  1.4200280e+003  1.4257150e+003  1.4310350e+003  1.4358150e+003  1.4397980e+003  1.4433390e+003  1.4471350e+003  1.4514030e+003  1.4559080e+003  1.4603360e+003  1.4643540e+003  1.4675080e+003  1.4704210e+003  1.4729510e+003  1.4751830e+003  1.4773400e+003  1.4786040e+003  1.4797570e+003  1.4821230e+003  1.4865250e+003  1.4918340e+003  1.4969260e+003  1.5005550e+003  1.5037150e+003  1.5076720e+003  1.5132290e+003  1.5200010e+003  1.5275020e+003  1.5359410e+003  1.5434990e+003  1.5500890e+003  1.5560180e+003  1.5602680e+003  1.5638640e+003  1.5668090e+003  1.5702910e+003  1.5748700e+003  1.5804060e+003  1.5868140e+003  1.5941940e+003  1.6018310e+003  1.6099350e+003  1.6176200e+003  1.6240280e+003  1.6313900e+003  1.6398830e+003  1.6494620e+003  1.6596890e+003  1.6700830e+003  1.6802680e+003  1.6904180e+003  1.7004760e+003  1.7103950e+003  1.7190890e+003  1.7252630e+003  1.7295820e+003  1.7325970e+003  1.7347360e+003  1.7362950e+003  1.7375140e+003  1.7384910e+003  1.7397180e+003  1.7401150e+003  1.7401990e+003
  1.4205170e+003  1.4268920e+003  1.4329680e+003  1.4385010e+003  1.4428980e+003  1.4469090e+003  1.4510780e+003  1.4556620e+003  1.4605940e+003  1.4656570e+003  1.4702910e+003  1.4740130e+003  1.4773880e+003  1.4805540e+003  1.4833340e+003  1.4860730e+003  1.4873990e+003  1.4880610e+003  1.4899060e+003  1.4938300e+003  1.4991530e+003  1.5045840e+003  1.5092090e+003  1.5135030e+003  1.5182640e+003  1.5232100e+003  1.5288780e+003  1.5360810e+003  1.5434930e+003  1.5506290e+003  1.5571300e+003  1.5625190e+003  1.5668660e+003  1.5704940e+003  1.5733740e+003  1.5764650e+003  1.5806610e+003  1.5859610e+003  1.5920300e+003  1.5985420e+003  1.6049740e+003  1.6115820e+003  1.6178240e+003  1.6235830e+003  1.6310960e+003  1.6395660e+003  1.6489410e+003  1.6589800e+003  1.6691750e+003  1.6794880e+003  1.6897920e+003  1.7000480e+003  1.7099960e+003  1.7188630e+003  1.7253320e+003  1.7300440e+003  1.7335220e+003  1.7361500e+003  1.7381650e+003  1.7398730e+003  1.7409920e+003  1.7428560e+003  1.7440000e+003  1.7445430e+003
  1.4225080e+003  1.4292240e+003  1.4355530e+003  1.4411970e+003  1.4463880e+003  1.4510050e+003  1.4556890e+003  1.4608180e+003  1.4664190e+003  1.4719740e+003  1.4769630e+003  1.4813020e+003  1.4852180e+003  1.4890840e+003  1.4923100e+003  1.4951400e+003  1.4960970e+003  1.4959550e+003  1.4973520e+003  1.5011430e+003  1.5067150e+003  1.5129470e+003  1.5187800e+003  1.5243360e+003  1.5301650e+003  1.5350070e+003  1.5396360e+003  1.5451070e+003  1.5510570e+003  1.5573140e+003  1.5632070e+003  1.5685990e+003  1.5734360e+003  1.5776790e+003  1.5807730e+003  1.5836930e+003  1.5878370e+003  1.5927780e+003  1.5982550e+003  1.6036800e+003  1.6091800e+003  1.6147660e+003  1.6201630e+003  1.6257380e+003  1.6325030e+003  1.6403020e+003  1.6492800e+003  1.6589830e+003  1.6689640e+003  1.6792390e+003  1.6895590e+003  1.6998240e+003  1.7096960e+003  1.7186370e+003  1.7252400e+003  1.7302830e+003  1.7343160e+003  1.7376750e+003  1.7404230e+003  1.7431680e+003  1.7452790e+003  1.7473370e+003  1.7488450e+003  1.7496460e+003
  1.4268790e+003  1.4333340e+003  1.4395340e+003  1.4453040e+003  1.4508990e+003  1.4559150e+003  1.4611870e+003  1.4671130e+003  1.4733690e+003  1.4794910e+003  1.4848860e+003  1.4900260e+003  1.4946510e+003  1.4982350e+003  1.5009650e+003  1.5030610e+003  1.5036820e+003  1.5034670e+003  1.5048970e+003  1.5090090e+003  1.5145990e+003  1.5212220e+003  1.5281970e+003  1.5349460e+003  1.5409420e+003  1.5459530e+003  1.5500740e+003  1.5541320e+003  1.5584810e+003  1.5634570e+003  1.5690930e+003  1.5746360e+003  1.5799590e+003  1.5848480e+003  1.5890680e+003  1.5924570e+003  1.5961900e+003  1.6004280e+003  1.6049120e+003  1.6094520e+003  1.6142780e+003  1.6192980e+003  1.6241800e+003  1.6294280e+003  1.6355040e+003  1.6424800e+003  1.6508760e+003  1.6599650e+003  1.6696410e+003  1.6796900e+003  1.6899580e+003  1.7001250e+003  1.7099320e+003  1.7186490e+003  1.7252020e+003  1.7304520e+003  1.7350270e+003  1.7393710e+003  1.7433150e+003  1.7471450e+003  1.7500470e+003  1.7523470e+003  1.7541140e+003  1.7549680e+003
  1.4326140e+003  1.4386430e+003  1.4444010e+003  1.4501300e+003  1.4559080e+003  1.4616150e+003  1.4677400e+003  1.4743010e+003  1.4811570e+003  1.4879350e+003  1.4939690e+003  1.4988680e+003  1.5032050e+003  1.5068110e+003  1.5096880e+003  1.5116380e+003  1.5125000e+003  1.5129100e+003  1.5145080e+003  1.5182060e+003  1.5232150e+003  1.5298230e+003  1.5372000e+003  1.5443440e+003  1.5509020e+003  1.5564350e+003  1.5603540e+003  1.5635760e+003  1.5667750e+003  1.5710780e+003  1.5759730e+003  1.5813290e+003  1.5868790e+003  1.5922180e+003  1.5972320e+003  1.6016440e+003  1.6052560e+003  1.6088840e+003  1.6122180e+003  1.6157390e+003  1.6199890e+003  1.6245910e+003  1.6292500e+003  1.6343410e+003  1.6401260e+003  1.6467210e+003  1.6542830e+003  1.6625220e+003  1.6717570e+003  1.6813990e+003  1.6915430e+003  1.7014010e+003  1.7109270e+003  1.7191160e+003  1.7254400e+003  1.7306780e+003  1.7354820e+003  1.7403990e+003  1.7458410e+003  1.7508500e+003  1.7545760e+003  1.7570090e+003  1.7590630e+003  1.7598400e+003
  1.4390180e+003  1.4443950e+003  1.4499260e+003  1.4557820e+003  1.4620050e+003  1.4685670e+003  1.4751250e+003  1.4820370e+003  1.4892700e+003  1.4960860e+003  1.5017280e+003  1.5066570e+003  1.5111720e+003  1.5151700e+003  1.5187580e+003  1.5212370e+003  1.5227750e+003  1.5237290e+003  1.5252880e+003  1.5284770e+003  1.5328580e+003  1.5386470e+003  1.5456760e+003  1.5530660e+003  1.5601680e+003  1.5662220e+003  1.5706370e+003  1.5742100e+003  1.5770140e+003  1.5802100e+003  1.5841990e+003  1.5893830e+003  1.5947590e+003  1.6002270e+003  1.6059760e+003  1.6116820e+003  1.6153760e+003  1.6178990e+003  1.6198850e+003  1.6223180e+003  1.6261930e+003  1.6305750e+003  1.6350270e+003  1.6401000e+003  1.6458570e+003  1.6522660e+003  1.6593590e+003  1.6671720e+003  1.6758910e+003  1.6851560e+003  1.6951130e+003  1.7044810e+003  1.7133730e+003  1.7205770e+003  1.7264280e+003  1.7314470e+003  1.7363140e+003  1.7417150e+003  1.7485240e+003  1.7545460e+003  1.7586840e+003  1.7605860e+003  1.7624870e+003  1.7635050e+003
  1.4455770e+003  1.4505770e+003  1.4561080e+003  1.4623740e+003  1.4693850e+003  1.4764510e+003  1.4830360e+003  1.4901090e+003  1.4970790e+003  1.5031800e+003  1.5086310e+003  1.5138010e+003  1.5188590e+003  1.5235010e+003  1.5282430e+003  1.5319700e+003  1.5347290e+003  1.5362880e+003  1.5377140e+003  1.5399570e+003  1.5432180e+003  1.5477540e+003  1.5542340e+003  1.5615690e+003  1.5690390e+003  1.5755430e+003  1.5801320e+003  1.5837190e+003  1.5867370e+003  1.5900060e+003  1.5939520e+003  1.5988270e+003  1.6037830e+003  1.6090170e+003  1.6152970e+003  1.6204790e+003  1.6238300e+003  1.6257930e+003  1.6272610e+003  1.6293280e+003  1.6327350e+003  1.6368860e+003  1.6410560e+003  1.6462540e+003  1.6521000e+003  1.6584230e+003  1.6652240e+003  1.6729960e+003  1.6817850e+003  1.6913210e+003  1.7009840e+003  1.7099400e+003  1.7176880e+003  1.7236170e+003  1.7286230e+003  1.7332560e+003  1.7381770e+003  1.7441840e+003  1.7518870e+003  1.7581770e+003  1.7618140e+003  1.7637000e+003  1.7654500e+003  1.7665460e+003
  1.4523090e+003  1.4571850e+003  1.4629770e+003  1.4699420e+003  1.4773140e+003  1.4843650e+003  1.4911670e+003  1.4979730e+003  1.5041990e+003  1.5098010e+003  1.5151710e+003  1.5207130e+003  1.5265600e+003  1.5324210e+003  1.5382290e+003  1.5428910e+003  1.5463370e+003  1.5484090e+003  1.5500150e+003  1.5520780e+003  1.5549910e+003  1.5585200e+003  1.5635520e+003  1.5702860e+003  1.5774690e+003  1.5838030e+003  1.5888240e+003  1.5927030e+003  1.5961790e+003  1.5999730e+003  1.6041560e+003  1.6090560e+003  1.6141450e+003  1.6189880e+003  1.6243050e+003  1.6288630e+003  1.6316500e+003  1.6330590e+003  1.6340760e+003  1.6357830e+003  1.6388090e+003  1.6423080e+003  1.6469450e+003  1.6523910e+003  1.6582590e+003  1.6643080e+003  1.6711290e+003  1.6791850e+003  1.6885060e+003  1.6982840e+003  1.7077560e+003  1.7159870e+003  1.7223060e+003  1.7273780e+003  1.7318360e+003  1.7362370e+003  1.7413020e+003  1.7482730e+003  1.7559360e+003  1.7612900e+003  1.7646510e+003  1.7666820e+003  1.7682360e+003  1.7692700e+003
  1.4592270e+003  1.4642580e+003  1.4706860e+003  1.4778580e+003  1.4850560e+003  1.4921200e+003  1.4989690e+003  1.5054160e+003  1.5112660e+003  1.5165310e+003  1.5219270e+003  1.5279380e+003  1.5344340e+003  1.5412810e+003  1.5481090e+003  1.5538540e+003  1.5576840e+003  1.5600630e+003  1.5619020e+003  1.5640010e+003  1.5665260e+003  1.5693100e+003  1.5732420e+003  1.5788790e+003  1.5852810e+003  1.5915730e+003  1.5971270e+003  1.6014470e+003  1.6055230e+003  1.6100610e+003  1.6146890e+003  1.6190130e+003  1.6234030e+003  1.6278370e+003  1.6325480e+003  1.6367350e+003  1.6389750e+003  1.6398850e+003  1.6404990e+003  1.6418600e+003  1.6447600e+003  1.6483170e+003  1.6529050e+003  1.6583040e+003  1.6638230e+003  1.6697900e+003  1.6766670e+003  1.6848870e+003  1.6947280e+003  1.7044140e+003  1.7137460e+003  1.7209490e+003  1.7267170e+003  1.7315560e+003  1.7359760e+003  1.7404680e+003  1.7455690e+003  1.7526540e+003  1.7593590e+003  1.7641110e+003  1.7672620e+003  1.7693140e+003  1.7707730e+003  1.7717500e+003
  1.4662860e+003  1.4720480e+003  1.4786160e+003  1.4855500e+003  1.4926360e+003  1.4997150e+003  1.5065830e+003  1.5130510e+003  1.5189130e+003  1.5240100e+003  1.5296820e+003  1.5357370e+003  1.5425350e+003  1.5500400e+003  1.5573240e+003  1.5633240e+003  1.5677290e+003  1.5707880e+003  1.5732920e+003  1.5759080e+003  1.5779890e+003  1.5798610e+003  1.5825520e+003  1.5870580e+003  1.5927320e+003  1.5989190e+003  1.6048590e+003  1.6103040e+003  1.6154250e+003  1.6199290e+003  1.6241530e+003  1.6279980e+003  1.6317630e+003  1.6355310e+003  1.6395780e+003  1.6430740e+003  1.6452790e+003  1.6463840e+003  1.6472230e+003  1.6487210e+003  1.6513590e+003  1.6545850e+003  1.6587710e+003  1.6638100e+003  1.6691880e+003  1.6751470e+003  1.6821060e+003  1.6905180e+003  1.6997180e+003  1.7089240e+003  1.7177520e+003  1.7249580e+003  1.7309780e+003  1.7361840e+003  1.7411140e+003  1.7463170e+003  1.7518370e+003  1.7579230e+003  1.7630860e+003  1.7670220e+003  1.7698160e+003  1.7717410e+003  1.7731060e+003  1.7740350e+003
  1.4731820e+003  1.4794860e+003  1.4861190e+003  1.4930210e+003  1.5001260e+003  1.5073290e+003  1.5144370e+003  1.5212590e+003  1.5275090e+003  1.5329010e+003  1.5384590e+003  1.5441470e+003  1.5510370e+003  1.5584710e+003  1.5655790e+003  1.5718020e+003  1.5768190e+003  1.5803220e+003  1.5833430e+003  1.5864520e+003  1.5885330e+003  1.5899960e+003  1.5918670e+003  1.5951700e+003  1.6000630e+003  1.6059980e+003  1.6123360e+003  1.6187280e+003  1.6244880e+003  1.6293550e+003  1.6333420e+003  1.6366910e+003  1.6398530e+003  1.6427350e+003  1.6461240e+003  1.6492230e+003  1.6516060e+003  1.6530330e+003  1.6541790e+003  1.6559260e+003  1.6586310e+003  1.6613300e+003  1.6647700e+003  1.6697510e+003  1.6748950e+003  1.6807610e+003  1.6878000e+003  1.6959490e+003  1.7041860e+003  1.7126190e+003  1.7209470e+003  1.7287900e+003  1.7355590e+003  1.7414430e+003  1.7471400e+003  1.7527020e+003  1.7580420e+003  1.7627770e+003  1.7668080e+003  1.7700030e+003  1.7723760e+003  1.7740570e+003  1.7752860e+003  1.7761680e+003
  1.4794900e+003  1.4862700e+003  1.4932350e+003  1.5003540e+003  1.5076980e+003  1.5151970e+003  1.5227720e+003  1.5302650e+003  1.5369310e+003  1.5423010e+003  1.5476940e+003  1.5531100e+003  1.5594410e+003  1.5662510e+003  1.5729560e+003  1.5790760e+003  1.5842270e+003  1.5884920e+003  1.5924140e+003  1.5961000e+003  1.5983450e+003  1.5996920e+003  1.6010200e+003  1.6034050e+003  1.6076970e+003  1.6133230e+003  1.6198800e+003  1.6271000e+003  1.6336080e+003  1.6390070e+003  1.6429630e+003  1.6458730e+003  1.6486430e+003  1.6508320e+003  1.6531510e+003  1.6557840e+003  1.6584830e+003  1.6602470e+003  1.6616550e+003  1.6636440e+003  1.6667390e+003  1.6695620e+003  1.6727310e+003  1.6769870e+003  1.6813000e+003  1.6868040e+003  1.6934220e+003  1.7008310e+003  1.7085780e+003  1.7166210e+003  1.7249520e+003  1.7335830e+003  1.7411110e+003  1.7476120e+003  1.7534850e+003  1.7588250e+003  1.7633250e+003  1.7671520e+003  1.7703770e+003  1.7729650e+003  1.7749280e+003  1.7762590e+003  1.7772810e+003  1.7781490e+003
  1.4846970e+003  1.4923060e+003  1.5000000e+003  1.5076810e+003  1.5154610e+003  1.5234660e+003  1.5317710e+003  1.5396520e+003  1.5464010e+003  1.5517480e+003  1.5567920e+003  1.5615330e+003  1.5671840e+003  1.5733190e+003  1.5794640e+003  1.5851970e+003  1.5903980e+003  1.5951590e+003  1.5997000e+003  1.6037290e+003  1.6067250e+003  1.6088770e+003  1.6105580e+003  1.6127210e+003  1.6161910e+003  1.6212660e+003  1.6280090e+003  1.6361440e+003  1.6432620e+003  1.6492270e+003  1.6537480e+003  1.6565230e+003  1.6583940e+003  1.6595240e+003  1.6606560e+003  1.6628110e+003  1.6657740e+003  1.6683110e+003  1.6703360e+003  1.6726740e+003  1.6758020e+003  1.6783550e+003  1.6809350e+003  1.6843070e+003  1.6882020e+003  1.6932780e+003  1.6995170e+003  1.7065090e+003  1.7138760e+003  1.7219270e+003  1.7310340e+003  1.7400650e+003  1.7479140e+003  1.7542500e+003  1.7597080e+003  1.7643150e+003  1.7680430e+003  1.7711260e+003  1.7737290e+003  1.7757990e+003  1.7774190e+003  1.7782620e+003  1.7789500e+003  1.7799090e+003
  1.4884570e+003  1.4974550e+003  1.5063770e+003  1.5149460e+003  1.5234580e+003  1.5322780e+003  1.5409140e+003  1.5488480e+003  1.5554160e+003  1.5601890e+003  1.5646000e+003  1.5690370e+003  1.5741130e+003  1.5796380e+003  1.5851820e+003  1.5905480e+003  1.5956930e+003  1.6007160e+003  1.6057480e+003  1.6103640e+003  1.6143530e+003  1.6177780e+003  1.6203030e+003  1.6227780e+003  1.6258450e+003  1.6305980e+003  1.6379080e+003  1.6460340e+003  1.6535100e+003  1.6592490e+003  1.6634500e+003  1.6661920e+003  1.6679100e+003  1.6685810e+003  1.6689360e+003  1.6712380e+003  1.6739950e+003  1.6768980e+003  1.6790900e+003  1.6812960e+003  1.6840100e+003  1.6865410e+003  1.6891460e+003  1.6919900e+003  1.6954460e+003  1.7001980e+003  1.7061870e+003  1.7131390e+003  1.7203840e+003  1.7287390e+003  1.7385060e+003  1.7476620e+003  1.7553140e+003  1.7608560e+003  1.7656000e+003  1.7694580e+003  1.7723750e+003  1.7747290e+003  1.7768070e+003  1.7783200e+003  1.7797560e+003  1.7800150e+003  1.7801600e+003  1.7810540e+003
  1.4911120e+003  1.5014450e+003  1.5122060e+003  1.5220260e+003  1.5316470e+003  1.5409490e+003  1.5495900e+003  1.5570050e+003  1.5626840e+003  1.5671030e+003  1.5711630e+003  1.5753990e+003  1.5801590e+003  1.5852570e+003  1.5903960e+003  1.5954890e+003  1.6005940e+003  1.6059150e+003  1.6112810e+003  1.6164550e+003  1.6213510e+003  1.6260050e+003  1.6300640e+003  1.6338890e+003  1.6374170e+003  1.6419690e+003  1.6485740e+003  1.6559400e+003  1.6628470e+003  1.6684570e+003  1.6724270e+003  1.6752320e+003  1.6774070e+003  1.6784510e+003  1.6791290e+003  1.6805500e+003  1.6824220e+003  1.6848880e+003  1.6871890e+003  1.6895800e+003  1.6919910e+003  1.6945080e+003  1.6974460e+003  1.7001470e+003  1.7033010e+003  1.7079000e+003  1.7136150e+003  1.7204010e+003  1.7281940e+003  1.7374820e+003  1.7469740e+003  1.7554670e+003  1.7619790e+003  1.7669430e+003  1.7710690e+003  1.7743130e+003  1.7763580e+003  1.7779210e+003  1.7795930e+003  1.7802710e+003  1.7813670e+003  1.7818430e+003  1.7821800e+003  1.7827830e+003
  1.4935810e+003  1.5049610e+003  1.5171040e+003  1.5285160e+003  1.5390960e+003  1.5487520e+003  1.5569540e+003  1.5633670e+003  1.5684630e+003  1.5726660e+003  1.5766270e+003  1.5808740e+003  1.5856100e+003  1.5904710e+003  1.5953490e+003  1.6002940e+003  1.6054890e+003  1.6109510e+003  1.6166420e+003  1.6224230e+003  1.6282420e+003  1.6337400e+003  1.6388930e+003  1.6436020e+003  1.6480530e+003  1.6528520e+003  1.6587570e+003  1.6649000e+003  1.6713960e+003  1.6769110e+003  1.6806020e+003  1.6833370e+003  1.6858420e+003  1.6874960e+003  1.6888150e+003  1.6899820e+003  1.6912020e+003  1.6928190e+003  1.6948350e+003  1.6974260e+003  1.6996770e+003  1.7021990e+003  1.7056210e+003  1.7091070e+003  1.7127210e+003  1.7171110e+003  1.7225940e+003  1.7293890e+003  1.7379510e+003  1.7470410e+003  1.7556190e+003  1.7625810e+003  1.7680230e+003  1.7723020e+003  1.7759690e+003  1.7788970e+003  1.7800970e+003  1.7807500e+003  1.7820100e+003  1.7827160e+003  1.7834250e+003  1.7838980e+003  1.7842890e+003  1.7846920e+003
  1.4965500e+003  1.5086510e+003  1.5212870e+003  1.5338290e+003  1.5449130e+003  1.5547530e+003  1.5621650e+003  1.5680350e+003  1.5729700e+003  1.5772470e+003  1.5814370e+003  1.5860830e+003  1.5907760e+003  1.5954170e+003  1.6000940e+003  1.6049930e+003  1.6102200e+003  1.6158070e+003  1.6219980e+003  1.6287480e+003  1.6348250e+003  1.6406070e+003  1.6463360e+003  1.6518790e+003  1.6572180e+003  1.6622620e+003  1.6679340e+003  1.6733090e+003  1.6789490e+003  1.6839750e+003  1.6879800e+003  1.6911860e+003  1.6935360e+003  1.6953600e+003  1.6972880e+003  1.6984540e+003  1.6992540e+003  1.7002140e+003  1.7017810e+003  1.7043780e+003  1.7071020e+003  1.7103650e+003  1.7145690e+003  1.7192240e+003  1.7236090e+003  1.7280810e+003  1.7337170e+003  1.7405730e+003  1.7486690e+003  1.7568460e+003  1.7637860e+003  1.7692870e+003  1.7736240e+003  1.7770120e+003  1.7801790e+003  1.7827750e+003  1.7841050e+003  1.7847000e+003  1.7852690e+003  1.7856070e+003  1.7859360e+003  1.7862430e+003  1.7865490e+003  1.7868010e+003
  1.4995130e+003  1.5119100e+003  1.5245160e+003  1.5372070e+003  1.5484100e+003  1.5580780e+003  1.5653650e+003  1.5712330e+003  1.5765360e+003  1.5813170e+003  1.5862970e+003  1.5911260e+003  1.5956260e+003  1.5999560e+003  1.6044080e+003  1.6092410e+003  1.6145250e+003  1.6201780e+003  1.6271150e+003  1.6345980e+003  1.6404520e+003  1.6462790e+003  1.6522190e+003  1.6582340e+003  1.6640970e+003  1.6698120e+003  1.6754370e+003  1.6798120e+003  1.6846860e+003  1.6894640e+003  1.6937500e+003  1.6974470e+003  1.6995680e+003  1.7011670e+003  1.7032430e+003  1.7047890e+003  1.7059270e+003  1.7071560e+003  1.7089600e+003  1.7116420e+003  1.7147840e+003  1.7188600e+003  1.7242090e+003  1.7304570e+003  1.7362750e+003  1.7410080e+003  1.7459960e+003  1.7522830e+003  1.7594940e+003  1.7663790e+003  1.7717490e+003  1.7757680e+003  1.7790860e+003  1.7815070e+003  1.7844420e+003  1.7869730e+003  1.7885320e+003  1.7890820e+003  1.7890860e+003  1.7889200e+003  1.7888570e+003  1.7889440e+003  1.7891170e+003  1.7892420e+003
  1.5021160e+003  1.5147290e+003  1.5271010e+003  1.5392200e+003  1.5501490e+003  1.5595900e+003  1.5671430e+003  1.5735160e+003  1.5794600e+003  1.5851980e+003  1.5908070e+003  1.5956910e+003  1.5998250e+003  1.6037010e+003  1.6078560e+003  1.6125980e+003  1.6179990e+003  1.6233870e+003  1.6306210e+003  1.6380890e+003  1.6442460e+003  1.6502720e+003  1.6562730e+003  1.6622570e+003  1.6687420e+003  1.6748120e+003  1.6798450e+003  1.6837830e+003  1.6885300e+003  1.6931300e+003  1.6972380e+003  1.7005660e+003  1.7033530e+003  1.7056820e+003  1.7080420e+003  1.7100850e+003  1.7118340e+003  1.7137360e+003  1.7161400e+003  1.7194060e+003  1.7230360e+003  1.7279480e+003  1.7346840e+003  1.7420620e+003  1.7488330e+003  1.7537720e+003  1.7582080e+003  1.7634310e+003  1.7697050e+003  1.7755490e+003  1.7794550e+003  1.7820130e+003  1.7844960e+003  1.7866250e+003  1.7891430e+003  1.7916660e+003  1.7935040e+003  1.7939180e+003  1.7933170e+003  1.7926200e+003  1.7922050e+003  1.7920920e+003  1.7921280e+003  1.7920940e+003
  1.5040900e+003  1.5164980e+003  1.5285700e+003  1.5401460e+003  1.5507470e+003  1.5600660e+003  1.5678560e+003  1.5746190e+003  1.5810560e+003  1.5879470e+003  1.5943820e+003  1.5992310e+003  1.6028320e+003  1.6062680e+003  1.6100740e+003  1.6145760e+003  1.6199390e+003  1.6261180e+003  1.6331510e+003  1.6401710e+003  1.6467300e+003  1.6529820e+003  1.6591400e+003  1.6653570e+003  1.6719590e+003  1.6782470e+003  1.6829790e+003  1.6870380e+003  1.6913380e+003  1.6955480e+003  1.6994700e+003  1.7027950e+003  1.7059860e+003  1.7090100e+003  1.7119770e+003  1.7147650e+003  1.7173300e+003  1.7202350e+003  1.7235030e+003  1.7278470e+003  1.7324500e+003  1.7382190e+003  1.7451580e+003  1.7527290e+003  1.7588980e+003  1.7637370e+003  1.7681200e+003  1.7729850e+003  1.7784310e+003  1.7832000e+003  1.7865310e+003  1.7885180e+003  1.7900800e+003  1.7916700e+003  1.7938750e+003  1.7965830e+003  1.7989670e+003  1.7992130e+003  1.7979270e+003  1.7967980e+003  1.7961300e+003  1.7958500e+003  1.7957240e+003  1.7954400e+003
  1.5054740e+003  1.5174520e+003  1.5291270e+003  1.5402840e+003  1.5506050e+003  1.5599460e+003  1.5678570e+003  1.5748650e+003  1.5816930e+003  1.5893630e+003  1.5964960e+003  1.6008350e+003  1.6043020e+003  1.6075780e+003  1.6111550e+003  1.6154370e+003  1.6207840e+003  1.6276970e+003  1.6350980e+003  1.6418780e+003  1.6486030e+003  1.6547990e+003  1.6606540e+003  1.6670390e+003  1.6735530e+003  1.6796630e+003  1.6846370e+003  1.6889900e+003  1.6931080e+003  1.6968660e+003  1.7002310e+003  1.7039570e+003  1.7077120e+003  1.7114320e+003  1.7151720e+003  1.7189530e+003  1.7225940e+003  1.7269900e+003  1.7315170e+003  1.7364570e+003  1.7413250e+003  1.7474110e+003  1.7544440e+003  1.7611370e+003  1.7668440e+003  1.7713870e+003  1.7756030e+003  1.7802290e+003  1.7851550e+003  1.7895820e+003  1.7928600e+003  1.7944950e+003  1.7953600e+003  1.7964040e+003  1.7984030e+003  1.8014150e+003  1.8043700e+003  1.8045880e+003  1.8030960e+003  1.8019250e+003  1.8010770e+003  1.8005160e+003  1.8000330e+003  1.7993020e+003
  1.5063540e+003  1.5176910e+003  1.5288010e+003  1.5396640e+003  1.5498780e+003  1.5592880e+003  1.5671950e+003  1.5743620e+003  1.5814120e+003  1.5890420e+003  1.5958450e+003  1.6005860e+003  1.6045630e+003  1.6080050e+003  1.6115190e+003  1.6157070e+003  1.6211950e+003  1.6288680e+003  1.6371110e+003  1.6440550e+003  1.6506040e+003  1.6565860e+003  1.6619430e+003  1.6681280e+003  1.6742790e+003  1.6800730e+003  1.6853260e+003  1.6900550e+003  1.6943220e+003  1.6979640e+003  1.7008760e+003  1.7048400e+003  1.7089660e+003  1.7131960e+003  1.7175810e+003  1.7221850e+003  1.7278890e+003  1.7332890e+003  1.7384380e+003  1.7433680e+003  1.7484870e+003  1.7543930e+003  1.7609190e+003  1.7673950e+003  1.7729490e+003  1.7770080e+003  1.7809350e+003  1.7854580e+003  1.7901290e+003  1.7944990e+003  1.7980860e+003  1.7996320e+003  1.8002210e+003  1.8010810e+003  1.8032210e+003  1.8070830e+003  1.8103290e+003  1.8110820e+003  1.8105710e+003  1.8095120e+003  1.8080250e+003  1.8065910e+003  1.8050260e+003  1.8031640e+003
  1.5063860e+003  1.5167370e+003  1.5270750e+003  1.5376720e+003  1.5478280e+003  1.5575480e+003  1.5655630e+003  1.5729700e+003  1.5803780e+003  1.5879610e+003  1.5948630e+003  1.6002670e+003  1.6046180e+003  1.6081780e+003  1.6116330e+003  1.6157540e+003  1.6213540e+003  1.6294790e+003  1.6382350e+003  1.6456800e+003  1.6524490e+003  1.6586330e+003  1.6638740e+003  1.6693630e+003  1.6748350e+003  1.6801730e+003  1.6855420e+003  1.6906440e+003  1.6953170e+003  1.6994040e+003  1.7023930e+003  1.7059660e+003  1.7100230e+003  1.7145150e+003  1.7195150e+003  1.7250150e+003  1.7313980e+003  1.7377580e+003  1.7431350e+003  1.7482920e+003  1.7535590e+003  1.7592490e+003  1.7654930e+003  1.7718290e+003  1.7774720e+003  1.7809080e+003  1.7847910e+003  1.7890590e+003  1.7934030e+003  1.7974420e+003  1.8006530e+003  1.8032360e+003  1.8048690e+003  1.8067190e+003  1.8095850e+003  1.8134960e+003  1.8167920e+003  1.8174640e+003  1.8178820e+003  1.8171200e+003  1.8150410e+003  1.8129640e+003  1.8105080e+003  1.8079150e+003
  1.5038080e+003  1.5134850e+003  1.5233340e+003  1.5336810e+003  1.5438610e+003  1.5539790e+003  1.5623490e+003  1.5702200e+003  1.5782420e+003  1.5861560e+003  1.5937630e+003  1.6000560e+003  1.6047740e+003  1.6084050e+003  1.6117700e+003  1.6157860e+003  1.6213940e+003  1.6297040e+003  1.6387480e+003  1.6466540e+003  1.6536480e+003  1.6598260e+003  1.6653170e+003  1.6705170e+003  1.6754250e+003  1.6802290e+003  1.6855400e+003  1.6908170e+003  1.6957020e+003  1.6999130e+003  1.7031700e+003  1.7066260e+003  1.7105920e+003  1.7151270e+003  1.7203140e+003  1.7264010e+003  1.7330830e+003  1.7397270e+003  1.7457120e+003  1.7513480e+003  1.7567720e+003  1.7620130e+003  1.7681130e+003  1.7741230e+003  1.7794580e+003  1.7832680e+003  1.7872060e+003  1.7913140e+003  1.7954460e+003  1.7994570e+003  1.8028880e+003  1.8061070e+003  1.8089320e+003  1.8118690e+003  1.8153230e+003  1.8190140e+003  1.8213810e+003  1.8219000e+003  1.8226750e+003  1.8222100e+003  1.8205170e+003  1.8186090e+003  1.8156780e+003  1.8126750e+003
  1.4990690e+003  1.5086300e+003  1.5184500e+003  1.5284940e+003  1.5386020e+003  1.5483760e+003  1.5573770e+003  1.5658670e+003  1.5746050e+003  1.5834330e+003  1.5923690e+003  1.5997720e+003  1.6049320e+003  1.6086560e+003  1.6119530e+003  1.6158570e+003  1.6213960e+003  1.6297320e+003  1.6389630e+003  1.6472800e+003  1.6545550e+003  1.6607060e+003  1.6665510e+003  1.6717520e+003  1.6762680e+003  1.6804310e+003  1.6855230e+003  1.6907460e+003  1.6956480e+003  1.6999030e+003  1.7031820e+003  1.7066410e+003  1.7106260e+003  1.7152130e+003  1.7204920e+003  1.7268150e+003  1.7335950e+003  1.7403550e+003  1.7469010e+003  1.7531060e+003  1.7589870e+003  1.7642020e+003  1.7696910e+003  1.7750920e+003  1.7800430e+003  1.7843480e+003  1.7885160e+003  1.7925960e+003  1.7965050e+003  1.8002800e+003  1.8044570e+003  1.8085830e+003  1.8124890e+003  1.8163240e+003  1.8202060e+003  1.8237550e+003  1.8260220e+003  1.8268590e+003  1.8271570e+003  1.8264900e+003  1.8248700e+003  1.8227060e+003  1.8198380e+003  1.8167800e+003
  1.4923310e+003  1.5022480e+003  1.5122080e+003  1.5222730e+003  1.5323140e+003  1.5419080e+003  1.5512150e+003  1.5605720e+003  1.5704060e+003  1.5807690e+003  1.5908680e+003  1.5992710e+003  1.6048330e+003  1.6086840e+003  1.6119980e+003  1.6158590e+003  1.6213220e+003  1.6295740e+003  1.6389630e+003  1.6477600e+003  1.6556180e+003  1.6618600e+003  1.6679580e+003  1.6732670e+003  1.6776130e+003  1.6810600e+003  1.6856820e+003  1.6905180e+003  1.6951780e+003  1.6993570e+003  1.7024360e+003  1.7060490e+003  1.7102290e+003  1.7149950e+003  1.7204210e+003  1.7267910e+003  1.7335790e+003  1.7404290e+003  1.7472720e+003  1.7537710e+003  1.7598140e+003  1.7652050e+003  1.7704020e+003  1.7753840e+003  1.7801230e+003  1.7848120e+003  1.7893520e+003  1.7936250e+003  1.7975580e+003  1.8012700e+003  1.8061190e+003  1.8110570e+003  1.8158600e+003  1.8204470e+003  1.8248230e+003  1.8284090e+003  1.8307070e+003  1.8315440e+003  1.8313450e+003  1.8302920e+003  1.8284670e+003  1.8260650e+003  1.8231730e+003  1.8201600e+003
  1.4848010e+003  1.4952490e+003  1.5055890e+003  1.5161080e+003  1.5262700e+003  1.5359880e+003  1.5453700e+003  1.5554000e+003  1.5659530e+003  1.5777320e+003  1.5888670e+003  1.5982050e+003  1.6041080e+003  1.6081360e+003  1.6115990e+003  1.6155550e+003  1.6209840e+003  1.6289870e+003  1.6384650e+003  1.6477810e+003  1.6567350e+003  1.6633100e+003  1.6692940e+003  1.6746950e+003  1.6792840e+003  1.6823510e+003  1.6859570e+003  1.6900060e+003  1.6940880e+003  1.6978050e+003  1.7009220e+003  1.7050190e+003  1.7095220e+003  1.7145560e+003  1.7202070e+003  1.7265330e+003  1.7333250e+003  1.7402970e+003  1.7472650e+003  1.7538670e+003  1.7599780e+003  1.7655270e+003  1.7706790e+003  1.7754970e+003  1.7801830e+003  1.7852690e+003  1.7902830e+003  1.7949570e+003  1.7992970e+003  1.8034620e+003  1.8084420e+003  1.8138000e+003  1.8192950e+003  1.8246450e+003  1.8294000e+003  1.8329860e+003  1.8352770e+003  1.8358740e+003  1.8351270e+003  1.8337130e+003  1.8316440e+003  1.8290770e+003  1.8261870e+003  1.8232590e+003
  1.4793980e+003  1.4889160e+003  1.4993810e+003  1.5101520e+003  1.5209840e+003  1.5312450e+003  1.5410570e+003  1.5510710e+003  1.5617990e+003  1.5738870e+003  1.5857080e+003  1.5959680e+003  1.6023430e+003  1.6066900e+003  1.6104840e+003  1.6146660e+003  1.6200830e+003  1.6275850e+003  1.6369950e+003  1.6464250e+003  1.6561800e+003  1.6631160e+003  1.6691880e+003  1.6746200e+003  1.6792330e+003  1.6821980e+003  1.6853030e+003  1.6888650e+003  1.6926340e+003  1.6963910e+003  1.7000810e+003  1.7040730e+003  1.7085580e+003  1.7137570e+003  1.7196530e+003  1.7258910e+003  1.7327890e+003  1.7400280e+003  1.7471060e+003  1.7537720e+003  1.7599610e+003  1.7656840e+003  1.7709860e+003  1.7758730e+003  1.7805880e+003  1.7861360e+003  1.7916130e+003  1.7965680e+003  1.8009040e+003  1.8056810e+003  1.8109550e+003  1.8166100e+003  1.8224980e+003  1.8287700e+003  1.8338710e+003  1.8371850e+003  1.8394050e+003  1.8396330e+003  1.8382930e+003  1.8367790e+003  1.8345740e+003  1.8319310e+003  1.8291130e+003  1.8263810e+003
  1.4770770e+003  1.4849220e+003  1.4950890e+003  1.5057250e+003  1.5171330e+003  1.5275230e+003  1.5374700e+003  1.5468680e+003  1.5569820e+003  1.5683570e+003  1.5807510e+003  1.5918740e+003  1.5991510e+003  1.6040920e+003  1.6084920e+003  1.6130370e+003  1.6184000e+003  1.6253190e+003  1.6349980e+003  1.6444110e+003  1.6538300e+003  1.6607730e+003  1.6670550e+003  1.6724580e+003  1.6768580e+003  1.6801210e+003  1.6833090e+003  1.6867640e+003  1.6904620e+003  1.6944280e+003  1.6987050e+003  1.7025260e+003  1.7068980e+003  1.7121810e+003  1.7182670e+003  1.7244720e+003  1.7317410e+003  1.7395350e+003  1.7468650e+003  1.7536630e+003  1.7599760e+003  1.7659630e+003  1.7716370e+003  1.7769140e+003  1.7817990e+003  1.7877530e+003  1.7935810e+003  1.7988250e+003  1.8032900e+003  1.8081790e+003  1.8136620e+003  1.8197210e+003  1.8264240e+003  1.8331390e+003  1.8381630e+003  1.8405080e+003  1.8421680e+003  1.8421270e+003  1.8406640e+003  1.8395880e+003  1.8373410e+003  1.8346730e+003  1.8319400e+003  1.8293670e+003
  1.4787840e+003  1.4851650e+003  1.4943450e+003  1.5039640e+003  1.5145180e+003  1.5240200e+003  1.5333700e+003  1.5419800e+003  1.5513590e+003  1.5621990e+003  1.5743550e+003  1.5856300e+003  1.5944480e+003  1.6003150e+003  1.6056870e+003  1.6108050e+003  1.6163410e+003  1.6229640e+003  1.6316830e+003  1.6402810e+003  1.6488590e+003  1.6565620e+003  1.6631180e+003  1.6686540e+003  1.6731120e+003  1.6766740e+003  1.6800420e+003  1.6835790e+003  1.6872290e+003  1.6911280e+003  1.6954670e+003  1.6997550e+003  1.7042820e+003  1.7096630e+003  1.7156520e+003  1.7221030e+003  1.7300840e+003  1.7387550e+003  1.7465790e+003  1.7536470e+003  1.7601030e+003  1.7664070e+003  1.7725970e+003  1.7786510e+003  1.7841150e+003  1.7900700e+003  1.7958360e+003  1.8006940e+003  1.8054350e+003  1.8105300e+003  1.8162340e+003  1.8224860e+003  1.8298960e+003  1.8369720e+003  1.8414130e+003  1.8436250e+003  1.8450860e+003  1.8450510e+003  1.8438100e+003  1.8422580e+003  1.8399730e+003  1.8373230e+003  1.8346690e+003  1.8322370e+003
  1.4843020e+003  1.4898060e+003  1.4970490e+003  1.5044020e+003  1.5123590e+003  1.5200400e+003  1.5277570e+003  1.5358470e+003  1.5446500e+003  1.5549560e+003  1.5664420e+003  1.5780560e+003  1.5880070e+003  1.5959310e+003  1.6022170e+003  1.6079120e+003  1.6137660e+003  1.6203130e+003  1.6276930e+003  1.6347520e+003  1.6422080e+003  1.6499890e+003  1.6573660e+003  1.6634750e+003  1.6682710e+003  1.6721060e+003  1.6757310e+003  1.6795010e+003  1.6832010e+003  1.6870240e+003  1.6916970e+003  1.6965420e+003  1.7014350e+003  1.7071640e+003  1.7132570e+003  1.7200080e+003  1.7282260e+003  1.7378240e+003  1.7463980e+003  1.7539120e+003  1.7604460e+003  1.7669080e+003  1.7733060e+003  1.7797020e+003  1.7859410e+003  1.7922800e+003  1.7982580e+003  1.8028200e+003  1.8074190e+003  1.8126150e+003  1.8186970e+003  1.8253650e+003  1.8327690e+003  1.8396210e+003  1.8444990e+003  1.8472530e+003  1.8485660e+003  1.8484200e+003  1.8470950e+003  1.8451300e+003  1.8426510e+003  1.8399600e+003  1.8373450e+003  1.8350490e+003
  1.4929200e+003  1.4965630e+003  1.5009570e+003  1.5058770e+003  1.5112560e+003  1.5166290e+003  1.5221270e+003  1.5288710e+003  1.5373030e+003  1.5473340e+003  1.5585190e+003  1.5699240e+003  1.5805310e+003  1.5896380e+003  1.5973690e+003  1.6038490e+003  1.6100130e+003  1.6163140e+003  1.6220030e+003  1.6281520e+003  1.6350000e+003  1.6424900e+003  1.6502770e+003  1.6573430e+003  1.6626850e+003  1.6667240e+003  1.6705920e+003  1.6746690e+003  1.6788640e+003  1.6828080e+003  1.6883280e+003  1.6941090e+003  1.6998660e+003  1.7056130e+003  1.7115730e+003  1.7182100e+003  1.7262870e+003  1.7369680e+003  1.7465700e+003  1.7547800e+003  1.7612970e+003  1.7676440e+003  1.7738930e+003  1.7803140e+003  1.7871420e+003  1.7937830e+003  1.7995810e+003  1.8042590e+003  1.8088660e+003  1.8140630e+003  1.8202730e+003  1.8276840e+003  1.8354670e+003  1.8423840e+003  1.8479580e+003  1.8511280e+003  1.8523670e+003  1.8520490e+003  1.8504630e+003  1.8481230e+003  1.8453900e+003  1.8425870e+003  1.8399800e+003  1.8378040e+003
